-4.98545345 -3.22322507 2.35897436 0.0102639
-0.71220764 2.82032194 -3.17948718 0.01114115
-0.71220764 2.82032194 -0.30769231 0.01672981
4.78196555 -1.8130641 -3.17948718 0.01132699
4.78196555 -1.8130641 -0.51282051 0.01030542
4.17150187 2.61887037 0.51282051 0.01569553
4.17150187 2.61887037 3.58974359 0.01151952
2.13662291 0.80580627 0.1025641 0.03824897
2.13662291 0.80580627 3.79487179 0.01091182
-3.56103818 3.6261282 -3.38461538 0.01117724
-3.56103818 3.6261282 -0.51282051 0.01108576
-1.72964712 -0.80580627 0.1025641 0.0248276
-1.72964712 -0.80580627 3.79487179 0.01001752
-0.50871974 -2.01451567 0.30769231 0.01611402
-0.50871974 -2.01451567 2.97435897 0.01116546
2.74708659 1.8130641 0.1025641 0.03298106
2.74708659 1.8130641 4.0 0.01434369
3.56103818 -1.00725783 -3.79487179 0.01052175
3.56103818 -1.00725783 -0.30769231 0.02763966
2.13662291 0.20145157 0.30769231 0.01770275
2.13662291 0.20145157 2.35897436 0.01097157
3.76452607 -0.40290313 -2.56410256 0.01104206
3.76452607 -0.40290313 -0.51282051 0.01427092
0.50871974 -2.82032194 -2.76923077 0.0105631
0.50871974 -2.82032194 -0.30769231 0.01297702
-1.93313501 -3.22322507 0.30769231 0.01719076
-1.93313501 -3.22322507 3.79487179 0.01204277
-0.50871974 2.4174188 -2.97435897 0.01054837
-0.50871974 2.4174188 -0.30769231 0.01537641
4.57847766 -2.82032194 -3.17948718 0.01126161
4.57847766 -2.82032194 -0.71794872 0.01247491
0.71220764 -1.8130641 -3.38461538 0.01130885
0.71220764 -1.8130641 -0.30769231 0.02234185
1.32267132 -0.6043547 -3.17948718 0.01121718
1.32267132 -0.6043547 -0.30769231 0.02705152
-2.3401108 3.82757977 -3.58974359 0.01031763
-2.3401108 3.82757977 -0.51282051 0.01292939
2.13662291 0.6043547 0.1025641 0.02418783
2.13662291 0.6043547 3.58974359 0.01026169
1.93313501 0.40290313 0.1025641 0.01265641
1.93313501 0.40290313 2.97435897 0.0116977
2.5435987 2.01451567 0.1025641 0.03029353
2.5435987 2.01451567 4.0 0.01467506
4.57847766 2.01451567 0.51282051 0.01280316
4.57847766 2.01451567 3.38461538 0.011467
-4.98545345 2.21596724 -2.97435897 0.01085715
-4.98545345 2.21596724 -0.71794872 0.01038267
-1.52615922 1.61161253 -4.0 0.01190231
-1.52615922 1.61161253 -0.1025641 0.02644445
-1.72964712 -2.01451567 0.1025641 0.02441571
-1.72964712 -2.01451567 4.0 0.01328662
-0.91569553 2.01451567 -3.79487179 0.01006695
-0.91569553 2.01451567 -0.30769231 0.02852398
2.74708659 1.2087094 0.1025641 0.04476876
2.74708659 1.2087094 4.0 0.01207087
2.74708659 -0.20145157 -2.35897436 0.01054967
2.74708659 -0.20145157 -0.30769231 0.01469686
2.3401108 1.8130641 0.1025641 0.04587892
2.3401108 1.8130641 4.0 0.01458833
1.93313501 4.43193447 0.92307692 0.01026858
1.93313501 4.43193447 2.76923077 0.01020932
-2.5435987 4.02903134 -3.38461538 0.0103749
-2.5435987 4.02903134 -0.51282051 0.01011684
-1.72964712 0.6043547 -3.38461538 0.01128676
-1.72964712 0.6043547 -0.1025641 0.01715189
0.71220764 -1.00725783 -2.97435897 0.01163765
0.71220764 -1.00725783 -0.30769231 0.01665169
2.13662291 -2.82032194 -4.0 0.01228331
2.13662291 -2.82032194 -0.1025641 0.01009141
4.17150187 -4.02903134 -2.35897436 0.01067809
4.17150187 -4.02903134 -1.12820513 0.01003066
0.50871974 0.6043547 0.51282051 0.01106949
0.50871974 0.6043547 1.94871795 0.01148689
-4.37498976 -2.01451567 0.30769231 0.01027357
-4.37498976 -2.01451567 3.58974359 0.01119502
-3.35755028 1.2087094 -4.0 0.01054876
-3.35755028 1.2087094 -0.1025641 0.0150958
2.3401108 -2.82032194 -4.0 0.01247434
2.3401108 -2.82032194 -0.1025641 0.01006
2.13662291 -1.8130641 -4.0 0.01436533
2.13662291 -1.8130641 -0.1025641 0.04466091
-2.95057449 -4.43193447 0.92307692 0.01001
-2.95057449 -4.43193447 2.76923077 0.01021816
-2.74708659 4.02903134 -3.38461538 0.01021193
-2.74708659 4.02903134 -0.71794872 0.01306473
2.95057449 2.61887037 0.1025641 0.01036325
2.95057449 2.61887037 4.0 0.01272056
-3.76452607 2.4174188 -4.0 0.01031445
-3.76452607 2.4174188 -0.30769231 0.01735842
4.78196555 2.21596724 0.71794872 0.01287755
4.78196555 2.21596724 3.17948718 0.01124959
4.17150187 -0.6043547 -2.76923077 0.01095123
4.17150187 -0.6043547 -0.51282051 0.01226576
3.76452607 -1.41016097 -3.79487179 0.0119394
3.76452607 -1.41016097 -0.30769231 0.02423345
1.32267132 2.01451567 0.1025641 0.0156798
1.32267132 2.01451567 4.0 0.01118353
2.95057449 1.00725783 0.1025641 0.02652641
2.95057449 1.00725783 4.0 0.01032228
-1.93313501 3.22322507 -3.79487179 0.01204277
-1.93313501 3.22322507 -0.30769231 0.01719076
-2.3401108 1.41016097 -4.0 0.01339386
-2.3401108 1.41016097 -0.1025641 0.09221532
-2.5435987 -1.8130641 0.1025641 0.0407098
-2.5435987 -1.8130641 4.0 0.01457664
-4.98545345 -1.41016097 0.71794872 0.01019582
-4.98545345 -1.41016097 2.97435897 0.0100363
-1.93313501 -1.61161253 0.1025641 0.04988857
-1.93313501 -1.61161253 4.0 0.01349569
-5.18894135 -2.82032194 1.33333333 0.01057585
-5.18894135 -2.82032194 2.35897436 0.01031177
-3.76452607 3.42467664 -3.38461538 0.01165303
-3.76452607 3.42467664 -0.51282051 0.0118215
-2.5435987 3.82757977 -3.58974359 0.01031109
-2.5435987 3.82757977 -0.51282051 0.01270889
4.17150187 0.40290313 0.71794872 0.01079887
4.17150187 0.40290313 2.15384615 0.01045482
2.95057449 -3.0217735 -4.0 0.01096275
2.95057449 -3.0217735 -0.30769231 0.01867107
3.15406239 -4.02903134 -3.17948718 0.01094364
3.15406239 -4.02903134 -0.71794872 0.01179889
2.95057449 -1.00725783 -4.0 0.01032228
2.95057449 -1.00725783 -0.1025641 0.02652641
4.37498976 -0.80580627 -2.97435897 0.01082599
4.37498976 -0.80580627 -0.51282051 0.01189534
-4.57847766 1.00725783 -2.97435897 0.01118253
-4.57847766 1.00725783 -0.51282051 0.01068542
2.3401108 -4.02903134 -3.38461538 0.01038161
2.3401108 -4.02903134 -0.51282051 0.01025241
0.71220764 1.2087094 0.30769231 0.01900658
0.71220764 1.2087094 3.17948718 0.01124973
5.39242924 -1.8130641 -2.15384615 0.01054396
5.39242924 -1.8130641 -1.33333333 0.01034894
5.18894135 -2.21596724 -2.76923077 0.01016258
5.18894135 -2.21596724 -0.92307692 0.01015782
-3.35755028 -0.6043547 0.30769231 0.02332578
-3.35755028 -0.6043547 3.38461538 0.01055845
3.35755028 2.61887037 0.30769231 0.02189338
3.35755028 2.61887037 4.0 0.01147779
0.71220764 3.42467664 0.51282051 0.01481075
0.71220764 3.42467664 2.76923077 0.01062219
-1.93313501 -1.00725783 0.1025641 0.04586859
-1.93313501 -1.00725783 4.0 0.01032057
5.39242924 -1.61161253 -2.15384615 0.0102428
5.39242924 -1.61161253 -1.33333333 0.01008123
-4.57847766 3.82757977 -2.15384615 0.01010372
-4.57847766 3.82757977 -1.53846154 0.01028359
-2.95057449 -4.02903134 0.71794872 0.01251096
-2.95057449 -4.02903134 3.17948718 0.01144225
-5.39242924 2.21596724 -2.15384615 0.01045474
-5.39242924 2.21596724 -1.33333333 0.01019929
3.56103818 -1.8130641 -4.0 0.01167078
3.56103818 -1.8130641 -0.1025641 0.01070374
1.32267132 3.6261282 0.51282051 0.01517402
1.32267132 3.6261282 3.38461538 0.01063353
-0.71220764 1.00725783 -2.97435897 0.01163765
-0.71220764 1.00725783 -0.30769231 0.01665169
5.18894135 -2.4174188 -2.56410256 0.0107846
5.18894135 -2.4174188 -1.12820513 0.01107603
3.35755028 1.2087094 0.1025641 0.0150958
3.35755028 1.2087094 4.0 0.01054876
-1.93313501 4.43193447 -2.76923077 0.01020932
-1.93313501 4.43193447 -0.92307692 0.01026858
-0.50871974 -1.2087094 0.30769231 0.01289067
-0.50871974 -1.2087094 2.76923077 0.01102121
1.93313501 -3.6261282 -3.58974359 0.01131794
1.93313501 -3.6261282 -0.30769231 0.01034343
1.11918343 -3.0217735 -3.58974359 0.01114309
1.11918343 -3.0217735 -0.30769231 0.01825957
1.11918343 -2.4174188 -3.79487179 0.01138925
1.11918343 -2.4174188 -0.1025641 0.01012015
-4.78196555 -3.42467664 1.12820513 0.01016545
-4.78196555 -3.42467664 2.56410256 0.01004285
-4.78196555 -1.2087094 0.71794872 0.01207344
-4.78196555 -1.2087094 2.97435897 0.01085885
0.30523184 1.41016097 0.51282051 0.01283868
0.30523184 1.41016097 2.15384615 0.01097989
-1.52615922 2.21596724 -4.0 0.01217629
-1.52615922 2.21596724 -0.1025641 0.01624548
1.72964712 3.22322507 0.30769231 0.01679466
1.72964712 3.22322507 3.79487179 0.01143485
3.35755028 -3.0217735 -3.79487179 0.0119946
3.35755028 -3.0217735 -0.30769231 0.01459172
4.37498976 1.00725783 0.51282051 0.01402539
4.37498976 1.00725783 3.17948718 0.01127194
3.56103818 3.82757977 0.71794872 0.01216629
3.56103818 3.82757977 3.17948718 0.01121584
4.37498976 3.22322507 0.71794872 0.01167699
4.37498976 3.22322507 3.17948718 0.01078853
3.76452607 2.01451567 0.30769231 0.02186545
3.76452607 2.01451567 4.0 0.01079479
2.5435987 2.61887037 0.1025641 0.01267949
2.5435987 2.61887037 4.0 0.01332456
0.91569553 0.80580627 0.30769231 0.01933173
0.91569553 0.80580627 3.17948718 0.01053331
-1.52615922 2.01451567 -4.0 0.01234474
-1.52615922 2.01451567 -0.1025641 0.01971272
-2.3401108 -2.01451567 0.1025641 0.03277522
-2.3401108 -2.01451567 4.0 0.0146864
1.32267132 1.00725783 0.1025641 0.01636236
1.32267132 1.00725783 3.79487179 0.01004354
4.37498976 2.01451567 0.30769231 0.01027357
4.37498976 2.01451567 3.58974359 0.01119502
3.56103818 -3.0217735 -3.79487179 0.01116453
3.56103818 -3.0217735 -0.30769231 0.01254277
1.93313501 -2.61887037 -4.0 0.01270634
1.93313501 -2.61887037 -0.1025641 0.01269672
1.72964712 -3.42467664 -3.79487179 0.01021994
1.72964712 -3.42467664 -0.30769231 0.01310449
-1.93313501 -3.0217735 0.30769231 0.02210301
-1.93313501 -3.0217735 4.0 0.01094815
-2.74708659 1.2087094 -4.0 0.01207087
-2.74708659 1.2087094 -0.1025641 0.04476876
1.52615922 3.22322507 0.30769231 0.01628667
1.52615922 3.22322507 3.79487179 0.01062636
1.72964712 -0.40290313 -2.97435897 0.01103963
1.72964712 -0.40290313 -0.1025641 0.01045297
4.17150187 -1.00725783 -3.38461538 0.01102214
4.17150187 -1.00725783 -0.30769231 0.01176334
3.56103818 -3.6261282 -3.38461538 0.01117724
3.56103818 -3.6261282 -0.51282051 0.01108576
-4.57847766 2.61887037 -3.38461538 0.01041795
-4.57847766 2.61887037 -0.51282051 0.01038795
-1.11918343 -1.61161253 0.1025641 0.01401679
-1.11918343 -1.61161253 3.79487179 0.01151815
-3.76452607 3.22322507 -3.58974359 0.01110171
-3.76452607 3.22322507 -0.51282051 0.01416791
-3.96801397 -3.82757977 0.92307692 0.01179255
-3.96801397 -3.82757977 2.97435897 0.01060374
-3.76452607 -3.0217735 0.30769231 0.01064144
-3.76452607 -3.0217735 3.79487179 0.01025557
-4.78196555 -2.4174188 0.71794872 0.01215584
-4.78196555 -2.4174188 3.17948718 0.01088981
-4.37498976 1.2087094 -3.38461538 0.01100675
-4.37498976 1.2087094 -0.51282051 0.01562392
-2.3401108 4.02903134 -3.38461538 0.01038161
-2.3401108 4.02903134 -0.51282051 0.01025241
1.11918343 3.82757977 0.51282051 0.01119714
1.11918343 3.82757977 2.97435897 0.01067335
-1.32267132 0.6043547 -3.17948718 0.01121718
-1.32267132 0.6043547 -0.30769231 0.02705152
1.72964712 -3.0217735 -4.0 0.01039577
1.72964712 -3.0217735 -0.30769231 0.0213798
-1.72964712 -2.82032194 0.30769231 0.02700924
-1.72964712 -2.82032194 4.0 0.01128743
1.72964712 3.6261282 0.30769231 0.0101901
1.72964712 3.6261282 3.58974359 0.01074683
5.18894135 2.21596724 0.92307692 0.01015782
5.18894135 2.21596724 2.76923077 0.01016258
-5.18894135 1.61161253 -2.56410256 0.01090849
-5.18894135 1.61161253 -0.92307692 0.01020552
-3.15406239 -0.40290313 0.30769231 0.01992444
-3.15406239 -0.40290313 2.97435897 0.01079641
-0.30523184 -0.80580627 0.71794872 0.01043593
-0.30523184 -0.80580627 1.53846154 0.01088276
3.56103818 0.40290313 0.30769231 0.01192278
3.56103818 0.40290313 2.76923077 0.01070229
1.52615922 -4.43193447 -2.35897436 0.01064486
1.52615922 -4.43193447 -1.12820513 0.01049036
4.37498976 -2.01451567 -3.58974359 0.01119502
4.37498976 -2.01451567 -0.30769231 0.01027357
-3.96801397 -2.01451567 0.30769231 0.01701113
-3.96801397 -2.01451567 3.79487179 0.01186888
-3.15406239 1.2087094 -4.0 0.01118771
-3.15406239 1.2087094 -0.1025641 0.02145953
-2.5435987 -0.20145157 0.30769231 0.01687346
-2.5435987 -0.20145157 2.35897436 0.0109642
-4.57847766 -0.80580627 0.71794872 0.01178845
-4.57847766 -0.80580627 2.76923077 0.01055942
-3.15406239 -4.63338604 1.53846154 0.01014134
-3.15406239 -4.63338604 1.94871795 0.01027442
4.78196555 -2.21596724 -3.17948718 0.01124959
4.78196555 -2.21596724 -0.71794872 0.01287755
1.32267132 4.43193447 1.33333333 0.01035317
1.32267132 4.43193447 2.15384615 0.01021495
-1.52615922 1.2087094 -4.0 0.01031772
-1.52615922 1.2087094 -0.1025641 0.02678354
-3.15406239 -3.0217735 0.30769231 0.01668335
-3.15406239 -3.0217735 4.0 0.01048637
-4.37498976 1.61161253 -3.58974359 0.01078878
-4.37498976 1.61161253 -0.30769231 0.01078314
-1.52615922 -3.0217735 0.30769231 0.02047194
-1.52615922 -3.0217735 3.79487179 0.01171736
-1.93313501 2.82032194 -4.0 0.0118875
-1.93313501 2.82032194 -0.30769231 0.02832526
-1.11918343 2.61887037 -3.79487179 0.01082952
-1.11918343 2.61887037 -0.30769231 0.02542679
-1.93313501 4.2304829 -2.97435897 0.01097222
-1.93313501 4.2304829 -0.71794872 0.01063285
-1.52615922 1.8130641 -4.0 0.01226108
-1.52615922 1.8130641 -0.1025641 0.02336898
0.71220764 3.6261282 0.51282051 0.01162453
0.71220764 3.6261282 2.56410256 0.01033053
3.56103818 1.2087094 0.1025641 0.01083334
3.56103818 1.2087094 3.79487179 0.01192887
2.13662291 -0.6043547 -3.58974359 0.01026169
2.13662291 -0.6043547 -0.1025641 0.02418783
2.5435987 1.8130641 0.1025641 0.0407098
2.5435987 1.8130641 4.0 0.01457664
1.72964712 -2.01451567 -4.0 0.01328662
1.72964712 -2.01451567 -0.1025641 0.02441571
2.74708659 2.01451567 0.1025641 0.02587655
2.74708659 2.01451567 4.0 0.01444126
4.37498976 1.2087094 0.51282051 0.01562392
4.37498976 1.2087094 3.38461538 0.01100675
-1.11918343 -2.01451567 0.1025641 0.0124996
-1.11918343 -2.01451567 3.79487179 0.01193775
-1.72964712 4.43193447 -2.56410256 0.01063132
-1.72964712 4.43193447 -1.12820513 0.01114236
4.78196555 -3.0217735 -2.97435897 0.01013649
4.78196555 -3.0217735 -0.92307692 0.01128684
-2.3401108 3.0217735 -4.0 0.01148852
-2.3401108 3.0217735 -0.30769231 0.02235868
-1.32267132 1.8130641 -4.0 0.01110704
-1.32267132 1.8130641 -0.1025641 0.01769005
4.98545345 -3.0217735 -2.56410256 0.0105311
4.98545345 -3.0217735 -1.12820513 0.01071845
1.52615922 1.2087094 0.1025641 0.02678354
1.52615922 1.2087094 4.0 0.01031772
-1.32267132 2.01451567 -4.0 0.01118353
-1.32267132 2.01451567 -0.1025641 0.0156798
4.17150187 3.0217735 0.51282051 0.01199228
4.17150187 3.0217735 3.38461538 0.01165904
-1.11918343 -0.80580627 0.30769231 0.02663652
-1.11918343 -0.80580627 3.38461538 0.01060821
1.11918343 -2.21596724 -3.79487179 0.01177039
1.11918343 -2.21596724 -0.1025641 0.01135031
0.50871974 -1.2087094 -2.76923077 0.01102121
0.50871974 -1.2087094 -0.30769231 0.01289067
-2.95057449 2.82032194 -4.0 0.01190217
-2.95057449 2.82032194 -0.30769231 0.0236552
3.96801397 -1.00725783 -3.58974359 0.01046437
3.96801397 -1.00725783 -0.30769231 0.01556574
4.78196555 -2.01451567 -3.17948718 0.01140475
4.78196555 -2.01451567 -0.51282051 0.01011679
3.15406239 -0.20145157 -2.15384615 0.01081324
3.15406239 -0.20145157 -0.51282051 0.01453063
2.13662291 -3.22322507 -4.0 0.01026246
2.13662291 -3.22322507 -0.30769231 0.01737992
-3.15406239 2.01451567 -4.0 0.01339155
-3.15406239 2.01451567 -0.1025641 0.01632441
1.52615922 -3.6261282 -3.38461538 0.01173531
1.52615922 -3.6261282 -0.51282051 0.01567772
-3.76452607 -3.42467664 0.51282051 0.0118215
-3.76452607 -3.42467664 3.38461538 0.01165303
-4.57847766 2.4174188 -3.38461538 0.01095123
-4.57847766 2.4174188 -0.51282051 0.01133957
-5.18894135 -1.00725783 1.53846154 0.01001526
-5.18894135 -1.00725783 1.74358974 0.01009658
-0.71220764 -0.80580627 0.30769231 0.01380523
-0.71220764 -0.80580627 2.76923077 0.01142
5.18894135 -2.82032194 -2.35897436 0.01031177
5.18894135 -2.82032194 -1.33333333 0.01057585
2.5435987 -0.80580627 -3.79487179 0.01106717
2.5435987 -0.80580627 -0.1025641 0.034664
-4.78196555 -3.0217735 0.92307692 0.01128684
-4.78196555 -3.0217735 2.97435897 0.01013649
3.96801397 -3.42467664 -3.38461538 0.0105632
3.96801397 -3.42467664 -0.51282051 0.01027467
-1.52615922 0.80580627 -3.58974359 0.01122251
-1.52615922 0.80580627 -0.1025641 0.01831886
-3.56103818 -0.6043547 0.30769231 0.01770191
-3.56103818 -0.6043547 3.17948718 0.0114966
1.93313501 0.6043547 0.1025641 0.02125729
1.93313501 0.6043547 3.38461538 0.01191431
1.11918343 -3.82757977 -2.97435897 0.01067335
1.11918343 -3.82757977 -0.51282051 0.01119714
-1.32267132 2.61887037 -4.0 0.01015837
-1.32267132 2.61887037 -0.30769231 0.02829787
3.35755028 3.82757977 0.51282051 0.01005188
3.35755028 3.82757977 3.38461538 0.01043226
-1.11918343 -1.41016097 0.1025641 0.01394815
-1.11918343 -1.41016097 3.79487179 0.01089527
-2.74708659 -2.01451567 0.1025641 0.02587655
-2.74708659 -2.01451567 4.0 0.01444126
-4.17150187 2.61887037 -3.58974359 0.01151952
-4.17150187 2.61887037 -0.51282051 0.01569553
2.95057449 4.02903134 0.71794872 0.01251096
2.95057449 4.02903134 3.17948718 0.01144225
4.78196555 -3.6261282 -2.15384615 0.01001155
4.78196555 -3.6261282 -1.53846154 0.01019006
0.30523184 -2.61887037 -2.15384615 0.01004677
0.30523184 -2.61887037 -0.51282051 0.01374081
2.74708659 -1.61161253 -4.0 0.01392426
2.74708659 -1.61161253 -0.1025641 0.04053385
-4.37498976 -4.02903134 1.53846154 0.01009892
-4.37498976 -4.02903134 1.94871795 0.0102316
-2.74708659 4.2304829 -2.97435897 0.01132256
-2.74708659 4.2304829 -0.71794872 0.01055955
1.52615922 0.6043547 0.1025641 0.01304335
1.52615922 0.6043547 3.38461538 0.01045412
-4.37498976 1.8130641 -3.58974359 0.01111648
-4.37498976 1.8130641 -0.30769231 0.01067994
-0.91569553 0.80580627 -3.17948718 0.01053331
-0.91569553 0.80580627 -0.30769231 0.01933173
1.52615922 3.42467664 0.30769231 0.01280647
1.52615922 3.42467664 3.58974359 0.01133815
-2.74708659 -3.0217735 0.30769231 0.02038245
-2.74708659 -3.0217735 4.0 0.01130082
4.17150187 -2.01451567 -3.79487179 0.01061737
4.17150187 -2.01451567 -0.30769231 0.01321395
3.76452607 -4.02903134 -2.97435897 0.01002229
3.76452607 -4.02903134 -0.92307692 0.01105319
2.3401108 4.2304829 0.71794872 0.01090789
2.3401108 4.2304829 3.17948718 0.01013589
1.11918343 -4.2304829 -2.35897436 0.01023496
1.11918343 -4.2304829 -0.92307692 0.01000835
2.13662291 2.01451567 0.1025641 0.03225559
2.13662291 2.01451567 4.0 0.01446182
1.72964712 4.02903134 0.71794872 0.01296981
1.72964712 4.02903134 3.17948718 0.01085396
-4.98545345 -2.4174188 0.92307692 0.01193409
-4.98545345 -2.4174188 2.97435897 0.01050935
1.52615922 -2.21596724 -4.0 0.01217629
1.52615922 -2.21596724 -0.1025641 0.01624548
-2.95057449 -1.00725783 0.1025641 0.02652641
-2.95057449 -1.00725783 4.0 0.01032228
-4.98545345 2.82032194 -2.76923077 0.01043733
-4.98545345 2.82032194 -0.92307692 0.01033261
3.35755028 -3.6261282 -3.58974359 0.01022635
3.35755028 -3.6261282 -0.51282051 0.01232952
-2.3401108 -0.40290313 0.1025641 0.01443375
-2.3401108 -0.40290313 3.17948718 0.01025643
-1.11918343 3.0217735 -3.58974359 0.01114309
-1.11918343 3.0217735 -0.30769231 0.01825957
-3.56103818 3.42467664 -3.58974359 0.01080316
-3.56103818 3.42467664 -0.51282051 0.01347235
-1.32267132 -1.2087094 0.1025641 0.01868244
-1.32267132 -1.2087094 3.79487179 0.01138386
0.50871974 2.21596724 0.30769231 0.0159591
0.50871974 2.21596724 2.97435897 0.01095515
2.95057449 1.8130641 0.1025641 0.02548658
2.95057449 1.8130641 4.0 0.0139094
-1.11918343 -1.8130641 0.1025641 0.01345526
-1.11918343 -1.8130641 3.79487179 0.01186124
-4.17150187 -3.0217735 0.51282051 0.01199228
-4.17150187 -3.0217735 3.38461538 0.01165904
-4.17150187 -1.2087094 0.30769231 0.01307675
-4.17150187 -1.2087094 3.58974359 0.0105973
-1.32267132 -2.01451567 0.1025641 0.0156798
-1.32267132 -2.01451567 4.0 0.01118353
-3.96801397 -2.82032194 0.30769231 0.01049238
-3.96801397 -2.82032194 3.79487179 0.01009397
3.76452607 2.21596724 0.30769231 0.01973167
3.76452607 2.21596724 4.0 0.01065162
4.17150187 2.21596724 0.30769231 0.01224648
4.17150187 2.21596724 3.79487179 0.01047625
4.17150187 -2.4174188 -3.79487179 0.01014434
4.17150187 -2.4174188 -0.30769231 0.01109139
3.96801397 -1.41016097 -3.79487179 0.01081429
3.96801397 -1.41016097 -0.30769231 0.01829317
-1.72964712 -0.6043547 0.1025641 0.01715189
-1.72964712 -0.6043547 3.38461538 0.01128676
-4.17150187 3.0217735 -3.38461538 0.01165904
-4.17150187 3.0217735 -0.51282051 0.01199228
3.15406239 -2.4174188 -4.0 0.0127891
3.15406239 -2.4174188 -0.1025641 0.01105251
-5.18894135 2.61887037 -2.56410256 0.01025421
-5.18894135 2.61887037 -1.12820513 0.01045515
0.71220764 4.02903134 1.12820513 0.01020244
0.71220764 4.02903134 1.53846154 0.01019011
0.71220764 -1.61161253 -3.38461538 0.01099723
0.71220764 -1.61161253 -0.30769231 0.02186744
-3.56103818 -3.42467664 0.51282051 0.01347235
-3.56103818 -3.42467664 3.58974359 0.01080316
0.91569553 2.21596724 0.30769231 0.02692696
0.91569553 2.21596724 3.58974359 0.01189047
4.98545345 -1.8130641 -2.97435897 0.01093304
4.98545345 -1.8130641 -0.71794872 0.0108074
-1.52615922 4.2304829 -2.76923077 0.0108169
-1.52615922 4.2304829 -0.92307692 0.01170971
3.56103818 3.0217735 0.30769231 0.01254277
3.56103818 3.0217735 3.79487179 0.01116453
-1.72964712 0.40290313 -2.97435897 0.01103963
-1.72964712 0.40290313 -0.1025641 0.01045297
-1.72964712 -1.00725783 0.1025641 0.03269649
-1.72964712 -1.00725783 3.79487179 0.01195063
2.74708659 4.63338604 1.33333333 0.0104329
2.74708659 4.63338604 2.35897436 0.01020574
3.96801397 -1.2087094 -3.58974359 0.01186318
3.96801397 -1.2087094 -0.30769231 0.01729975
-1.11918343 -1.2087094 0.1025641 0.01309961
-1.11918343 -1.2087094 3.58974359 0.01201896
1.93313501 4.2304829 0.71794872 0.01063285
1.93313501 4.2304829 2.97435897 0.01097222
2.5435987 2.82032194 0.30769231 0.02798063
2.5435987 2.82032194 4.0 0.01246608
-4.98545345 -1.2087094 0.92307692 0.01129416
-4.98545345 -1.2087094 2.76923077 0.01029914
2.3401108 3.6261282 0.30769231 0.01034734
2.3401108 3.6261282 3.58974359 0.01187645
-4.17150187 -1.00725783 0.30769231 0.01176334
-4.17150187 -1.00725783 3.38461538 0.01102214
-2.3401108 -1.61161253 0.1025641 0.06807671
-2.3401108 -1.61161253 4.0 0.01416279
-0.50871974 -3.42467664 0.51282051 0.01165043
-0.50871974 -3.42467664 2.15384615 0.01051848
4.37498976 0.80580627 0.51282051 0.01189534
4.37498976 0.80580627 2.97435897 0.01082599
-2.74708659 3.42467664 -3.79487179 0.01110956
-2.74708659 3.42467664 -0.30769231 0.01238666
-2.5435987 0.80580627 -3.79487179 0.01106717
-2.5435987 0.80580627 -0.1025641 0.034664
3.56103818 -3.42467664 -3.58974359 0.01080316
3.56103818 -3.42467664 -0.51282051 0.01347235
-1.11918343 -3.82757977 0.51282051 0.01119714
-1.11918343 -3.82757977 2.97435897 0.01067335
0.91569553 3.42467664 0.30769231 0.01106718
0.91569553 3.42467664 3.17948718 0.01036603
-3.15406239 -0.20145157 0.51282051 0.01453063
-3.15406239 -0.20145157 2.15384615 0.01081324
-3.76452607 2.61887037 -3.79487179 0.01189909
-3.76452607 2.61887037 -0.30769231 0.01495764
2.5435987 -3.42467664 -3.79487179 0.01128685
2.5435987 -3.42467664 -0.30769231 0.01298763
1.52615922 1.8130641 0.1025641 0.02336898
1.52615922 1.8130641 4.0 0.01226108
2.74708659 -3.22322507 -4.0 0.01025236
2.74708659 -3.22322507 -0.30769231 0.01588118
1.52615922 -4.2304829 -2.76923077 0.0108169
1.52615922 -4.2304829 -0.92307692 0.01170971
-1.32267132 -2.61887037 0.30769231 0.02829787
-1.32267132 -2.61887037 4.0 0.01015837
-2.74708659 -1.2087094 0.1025641 0.04476876
-2.74708659 -1.2087094 4.0 0.01207087
4.17150187 -1.2087094 -3.58974359 0.0105973
4.17150187 -1.2087094 -0.30769231 0.01307675
-1.72964712 -4.43193447 1.12820513 0.01114236
-1.72964712 -4.43193447 2.56410256 0.01063132
1.11918343 -1.61161253 -3.79487179 0.01151815
1.11918343 -1.61161253 -0.1025641 0.01401679
2.3401108 1.61161253 0.1025641 0.06807671
2.3401108 1.61161253 4.0 0.01416279
0.30523184 -2.01451567 -2.35897436 0.01015027
0.30523184 -2.01451567 -0.51282051 0.01496354
-0.91569553 3.6261282 -2.97435897 0.01039214
-0.91569553 3.6261282 -0.51282051 0.01334841
-0.71220764 -4.02903134 1.12820513 0.01020244
-0.71220764 -4.02903134 1.53846154 0.01019011
0.30523184 -3.0217735 -1.74358974 0.01057757
0.30523184 -3.0217735 -0.51282051 0.01095881
0.71220764 -2.82032194 -3.17948718 0.01114115
0.71220764 -2.82032194 -0.30769231 0.01672981
-2.3401108 -1.00725783 0.1025641 0.06348412
-2.3401108 -1.00725783 4.0 0.01083097
1.32267132 -4.43193447 -2.15384615 0.01021495
1.32267132 -4.43193447 -1.33333333 0.01035317
1.11918343 1.61161253 0.1025641 0.01401679
1.11918343 1.61161253 3.79487179 0.01151815
-5.18894135 1.41016097 -2.56410256 0.01031893
-5.18894135 1.41016097 -1.12820513 0.01098246
-2.95057449 -0.80580627 0.1025641 0.02075342
-2.95057449 -0.80580627 3.79487179 0.01054403
-1.52615922 4.02903134 -3.17948718 0.01008713
-1.52615922 4.02903134 -0.71794872 0.01248387
5.18894135 -1.8130641 -2.76923077 0.01023381
5.18894135 -1.8130641 -0.92307692 0.01042391
3.76452607 0.80580627 0.30769231 0.01739899
3.76452607 0.80580627 3.38461538 0.01148224
-4.98545345 2.61887037 -2.76923077 0.01115954
-4.98545345 2.61887037 -0.92307692 0.0111897
1.52615922 4.2304829 0.92307692 0.01170971
1.52615922 4.2304829 2.76923077 0.0108169
-2.95057449 -2.4174188 0.1025641 0.01313872
-2.95057449 -2.4174188 4.0 0.01337276
5.39242924 -1.41016097 -1.94871795 0.01002698
5.39242924 -1.41016097 -1.74358974 0.01014028
4.17150187 3.6261282 0.71794872 0.01009449
4.17150187 3.6261282 2.97435897 0.01092212
2.13662291 2.4174188 0.1025641 0.01756882
2.13662291 2.4174188 4.0 0.01380473
3.56103818 -0.20145157 -1.74358974 0.01096673
3.56103818 -0.20145157 -0.71794872 0.0115368
-4.17150187 2.4174188 -3.79487179 0.01014434
-4.17150187 2.4174188 -0.30769231 0.01109139
3.56103818 2.61887037 0.30769231 0.01821733
3.56103818 2.61887037 4.0 0.01068392
-1.93313501 3.0217735 -4.0 0.01094815
-1.93313501 3.0217735 -0.30769231 0.02210301
3.15406239 -3.42467664 -3.79487179 0.0103089
3.15406239 -3.42467664 -0.30769231 0.01058095
0.71220764 -2.61887037 -3.38461538 0.01026269
0.71220764 -2.61887037 -0.30769231 0.01876205
2.74708659 2.82032194 0.30769231 0.02612624
2.74708659 2.82032194 4.0 0.01226981
0.91569553 1.00725783 0.30769231 0.02338512
0.91569553 1.00725783 3.38461538 0.01062899
3.56103818 4.02903134 0.71794872 0.01006061
3.56103818 4.02903134 2.97435897 0.0109124
-4.37498976 2.01451567 -3.58974359 0.01119502
-4.37498976 2.01451567 -0.30769231 0.01027357
4.17150187 -3.82757977 -2.76923077 0.01058558
4.17150187 -3.82757977 -0.92307692 0.01040464
4.37498976 0.6043547 0.71794872 0.01204044
4.37498976 0.6043547 2.56410256 0.0106595
-2.13662291 -3.6261282 0.30769231 0.01041147
-2.13662291 -3.6261282 3.58974359 0.01169464
3.76452607 -2.4174188 -4.0 0.01031445
3.76452607 -2.4174188 -0.30769231 0.01735842
-5.39242924 1.41016097 -1.94871795 0.01002698
-5.39242924 1.41016097 -1.74358974 0.01014028
2.13662291 -1.61161253 -4.0 0.01394637
2.13662291 -1.61161253 -0.1025641 0.06490288
-3.96801397 4.02903134 -2.76923077 0.01013586
-3.96801397 4.02903134 -1.12820513 0.0112956
-0.30523184 0.80580627 -1.53846154 0.01088276
-0.30523184 0.80580627 -0.71794872 0.01043593
0.50871974 -2.61887037 -2.76923077 0.01137907
0.50871974 -2.61887037 -0.30769231 0.01436736
1.11918343 3.0217735 0.30769231 0.01825957
1.11918343 3.0217735 3.58974359 0.01114309
-2.13662291 -1.2087094 0.1025641 0.08467303
-2.13662291 -1.2087094 4.0 0.01209163
-0.91569553 -3.42467664 0.30769231 0.01106718
-0.91569553 -3.42467664 3.17948718 0.01036603
1.93313501 3.42467664 0.30769231 0.01333194
1.93313501 3.42467664 3.79487179 0.01076292
1.11918343 -1.00725783 -3.58974359 0.01060828
1.11918343 -1.00725783 -0.1025641 0.01151074
2.74708659 -3.82757977 -3.58974359 0.01014928
2.74708659 -3.82757977 -0.51282051 0.01228533
2.5435987 -2.01451567 -4.0 0.01467506
2.5435987 -2.01451567 -0.1025641 0.03029353
3.15406239 4.43193447 1.12820513 0.01086209
3.15406239 4.43193447 2.56410256 0.0107074
2.74708659 2.61887037 0.1025641 0.01166841
2.74708659 2.61887037 4.0 0.01311423
2.95057449 3.0217735 0.30769231 0.01867107
2.95057449 3.0217735 4.0 0.01096275
-4.78196555 -0.80580627 0.92307692 0.0107662
-4.78196555 -0.80580627 2.35897436 0.01085346
2.95057449 4.43193447 0.92307692 0.01001
2.95057449 4.43193447 2.76923077 0.01021816
2.13662291 -4.02903134 -3.38461538 0.01022268
2.13662291 -4.02903134 -0.51282051 0.01024159
0.30523184 1.2087094 0.51282051 0.01156328
0.30523184 1.2087094 2.15384615 0.01015635
4.37498976 0.40290313 1.12820513 0.01035503
4.37498976 0.40290313 1.74358974 0.01011082
3.35755028 -4.43193447 -2.56410256 0.01009946
3.35755028 -4.43193447 -1.12820513 0.01020507
-4.37498976 2.82032194 -3.38461538 0.01118066
-4.37498976 2.82032194 -0.51282051 0.01137875
-2.74708659 -3.82757977 0.51282051 0.01228533
-2.74708659 -3.82757977 3.58974359 0.01014928
2.5435987 -0.20145157 -2.35897436 0.0109642
2.5435987 -0.20145157 -0.30769231 0.01687346
-0.30523184 -2.61887037 0.51282051 0.01374081
-0.30523184 -2.61887037 2.15384615 0.01004677
2.13662291 4.63338604 1.33333333 0.01050099
2.13662291 4.63338604 2.35897436 0.01022225
4.78196555 -1.00725783 -2.76923077 0.01075175
4.78196555 -1.00725783 -0.71794872 0.01076754
4.78196555 0.80580627 0.92307692 0.0107662
4.78196555 0.80580627 2.35897436 0.01085346
-4.17150187 2.21596724 -3.79487179 0.01047625
-4.17150187 2.21596724 -0.30769231 0.01224648
-3.35755028 -3.82757977 0.51282051 0.01005188
-3.35755028 -3.82757977 3.38461538 0.01043226
-3.35755028 0.6043547 -3.38461538 0.01055845
-3.35755028 0.6043547 -0.30769231 0.02332578
-2.74708659 -1.00725783 0.1025641 0.03701753
-2.74708659 -1.00725783 4.0 0.01064677
-3.56103818 -2.61887037 0.30769231 0.01821733
-3.56103818 -2.61887037 4.0 0.01068392
-1.93313501 -2.21596724 0.1025641 0.02192608
-1.93313501 -2.21596724 4.0 0.01380269
-0.71220764 2.21596724 -3.38461538 0.0111879
-0.71220764 2.21596724 -0.30769231 0.02157237
-4.78196555 3.0217735 -2.97435897 0.01013649
-4.78196555 3.0217735 -0.92307692 0.01128684
0.30523184 0.80580627 0.71794872 0.01043593
0.30523184 0.80580627 1.53846154 0.01088276
1.11918343 1.00725783 0.1025641 0.01151074
1.11918343 1.00725783 3.58974359 0.01060828
-1.32267132 0.80580627 -3.58974359 0.01014731
-1.32267132 0.80580627 -0.1025641 0.01314692
-2.13662291 -1.41016097 0.1025641 0.08643235
-2.13662291 -1.41016097 4.0 0.01318926
3.76452607 -2.82032194 -3.79487179 0.01113401
3.76452607 -2.82032194 -0.30769231 0.01268579
1.11918343 2.4174188 0.1025641 0.01012015
1.11918343 2.4174188 3.79487179 0.01138925
-2.13662291 -0.40290313 0.1025641 0.01416127
-2.13662291 -0.40290313 3.17948718 0.01010591
3.56103818 -2.4174188 -4.0 0.01122905
3.56103818 -2.4174188 -0.30769231 0.02149726
-3.15406239 4.43193447 -2.56410256 0.0107074
-3.15406239 4.43193447 -1.12820513 0.01086209
1.52615922 3.0217735 0.30769231 0.02047194
1.52615922 3.0217735 3.79487179 0.01171736
-0.91569553 2.4174188 -3.58974359 0.01149808
-0.91569553 2.4174188 -0.30769231 0.02483723
-3.96801397 2.01451567 -3.79487179 0.01186888
-3.96801397 2.01451567 -0.30769231 0.01701113
-4.17150187 -3.42467664 0.71794872 0.01181005
-4.17150187 -3.42467664 3.17948718 0.01091718
-2.3401108 -0.80580627 0.1025641 0.03944466
-2.3401108 -0.80580627 3.79487179 0.01108032
-0.71220764 -3.42467664 0.51282051 0.01481075
-0.71220764 -3.42467664 2.76923077 0.01062219
3.15406239 -2.01451567 -4.0 0.01339155
3.15406239 -2.01451567 -0.1025641 0.01632441
-2.95057449 0.6043547 -3.38461538 0.01182567
-2.95057449 0.6043547 -0.1025641 0.0146778
3.15406239 3.42467664 0.30769231 0.01058095
3.15406239 3.42467664 3.79487179 0.0103089
-4.98545345 -2.01451567 0.71794872 0.01070667
-4.98545345 -2.01451567 2.97435897 0.0110075
3.15406239 1.2087094 0.1025641 0.02145953
3.15406239 1.2087094 4.0 0.01118771
0.71220764 -3.0217735 -3.17948718 0.01023169
0.71220764 -3.0217735 -0.30769231 0.01443203
1.32267132 -1.61161253 -4.0 0.0107814
1.32267132 -1.61161253 -0.1025641 0.01919175
-2.5435987 -1.41016097 0.1025641 0.06977372
-2.5435987 -1.41016097 4.0 0.01338244
2.95057449 -2.21596724 -4.0 0.0138145
2.95057449 -2.21596724 -0.1025641 0.01664704
4.57847766 2.82032194 0.71794872 0.01247491
4.57847766 2.82032194 3.17948718 0.01126161
3.15406239 -1.41016097 -4.0 0.0122053
3.15406239 -1.41016097 -0.1025641 0.02231498
-2.13662291 3.42467664 -3.79487179 0.01112111
-2.13662291 3.42467664 -0.30769231 0.0134319
3.35755028 -1.8130641 -4.0 0.01254226
3.35755028 -1.8130641 -0.1025641 0.01424861
3.15406239 1.61161253 0.1025641 0.02137034
3.15406239 1.61161253 4.0 0.01290844
0.91569553 -3.0217735 -3.38461538 0.0110665
0.91569553 -3.0217735 -0.30769231 0.0166779
-1.32267132 1.41016097 -4.0 0.01019467
-1.32267132 1.41016097 -0.1025641 0.01964492
-1.32267132 2.4174188 -4.0 0.01067904
-1.32267132 2.4174188 -0.1025641 0.01163587
2.13662291 -3.42467664 -3.79487179 0.01112111
2.13662291 -3.42467664 -0.30769231 0.0134319
-2.13662291 -2.61887037 0.1025641 0.01321097
-2.13662291 -2.61887037 4.0 0.01312959
4.17150187 1.61161253 0.30769231 0.01411962
4.17150187 1.61161253 3.79487179 0.01022986
2.5435987 -1.61161253 -4.0 0.01415106
2.5435987 -1.61161253 -0.1025641 0.05547939
1.93313501 3.0217735 0.30769231 0.02210301
1.93313501 3.0217735 4.0 0.01094815
0.50871974 -0.6043547 -1.94871795 0.01148689
0.50871974 -0.6043547 -0.51282051 0.01106949
-2.95057449 3.0217735 -4.0 0.01096275
-2.95057449 3.0217735 -0.30769231 0.01867107
-4.17150187 0.80580627 -3.17948718 0.01075405
-4.17150187 0.80580627 -0.51282051 0.01565896
-2.13662291 0.6043547 -3.58974359 0.01026169
-2.13662291 0.6043547 -0.1025641 0.02418783
3.15406239 0.80580627 0.1025641 0.01513795
3.15406239 0.80580627 3.79487179 0.01007069
4.78196555 3.6261282 1.53846154 0.01019006
4.78196555 3.6261282 2.15384615 0.01001155
-3.56103818 -1.2087094 0.1025641 0.01083334
-3.56103818 -1.2087094 3.79487179 0.01192887
4.98545345 -1.41016097 -2.97435897 0.0100363
4.98545345 -1.41016097 -0.71794872 0.01019582
-1.11918343 1.41016097 -3.79487179 0.01089527
-1.11918343 1.41016097 -0.1025641 0.01394815
-3.96801397 -4.02903134 1.12820513 0.0112956
-3.96801397 -4.02903134 2.76923077 0.01013586
-2.5435987 -4.02903134 0.51282051 0.01011684
-2.5435987 -4.02903134 3.38461538 0.0103749
-4.17150187 1.41016097 -3.58974359 0.01156067
-4.17150187 1.41016097 -0.30769231 0.01386616
0.30523184 2.21596724 0.51282051 0.01497953
0.30523184 2.21596724 2.15384615 0.01128876
-4.98545345 -1.8130641 0.71794872 0.0108074
-4.98545345 -1.8130641 2.97435897 0.01093304
1.93313501 -3.22322507 -3.79487179 0.01204277
1.93313501 -3.22322507 -0.30769231 0.01719076
-1.11918343 -0.6043547 0.30769231 0.02003888
-1.11918343 -0.6043547 2.97435897 0.01156226
-2.5435987 -0.80580627 0.1025641 0.034664
-2.5435987 -0.80580627 3.79487179 0.01106717
-1.52615922 -3.82757977 0.51282051 0.01224077
-1.52615922 -3.82757977 3.38461538 0.01019039
2.3401108 0.80580627 0.1025641 0.03944466
2.3401108 0.80580627 3.79487179 0.01108032
2.95057449 2.01451567 0.1025641 0.02089289
2.95057449 2.01451567 4.0 0.01400496
4.17150187 -1.41016097 -3.58974359 0.01156067
4.17150187 -1.41016097 -0.30769231 0.01386616
-4.17150187 3.42467664 -3.17948718 0.01091718
-4.17150187 3.42467664 -0.71794872 0.01181005
0.91569553 1.8130641 0.1025641 0.01031408
0.91569553 1.8130641 3.79487179 0.0100012
2.5435987 -4.02903134 -3.38461538 0.0103749
2.5435987 -4.02903134 -0.51282051 0.01011684
2.3401108 1.00725783 0.1025641 0.06348412
2.3401108 1.00725783 4.0 0.01083097
-2.74708659 2.82032194 -4.0 0.01226981
-2.74708659 2.82032194 -0.30769231 0.02612624
-2.13662291 -2.82032194 0.1025641 0.01009141
-2.13662291 -2.82032194 4.0 0.01228331
4.37498976 -2.21596724 -3.58974359 0.01104495
4.37498976 -2.21596724 -0.51282051 0.0153303
-4.98545345 -3.42467664 1.74358974 0.01001891
-3.56103818 -2.82032194 0.30769231 0.0151989
-3.56103818 -2.82032194 3.79487179 0.01212217
-1.52615922 1.00725783 -3.79487179 0.01109567
-1.52615922 1.00725783 -0.1025641 0.02326976
-3.56103818 -0.80580627 0.30769231 0.02307694
-3.56103818 -0.80580627 3.58974359 0.0105854
2.5435987 -3.82757977 -3.58974359 0.01031109
2.5435987 -3.82757977 -0.51282051 0.01270889
3.35755028 -4.2304829 -2.76923077 0.0110572
3.35755028 -4.2304829 -0.92307692 0.01091243
3.76452607 3.6261282 0.71794872 0.01309879
3.76452607 3.6261282 3.38461538 0.01026657
4.57847766 0.6043547 0.92307692 0.01080859
4.57847766 0.6043547 2.35897436 0.01001119
-2.3401108 -4.2304829 0.71794872 0.01090789
-2.3401108 -4.2304829 3.17948718 0.01013589
1.72964712 3.0217735 0.30769231 0.0213798
1.72964712 3.0217735 4.0 0.01039577
1.11918343 2.01451567 0.1025641 0.0124996
1.11918343 2.01451567 3.79487179 0.01193775
-3.15406239 -1.00725783 0.1025641 0.01886664
-3.15406239 -1.00725783 3.79487179 0.01201579
-3.15406239 -2.61887037 0.30769231 0.02585118
-3.15406239 -2.61887037 4.0 0.01216627
-2.3401108 1.2087094 -4.0 0.01227915
-2.3401108 1.2087094 -0.1025641 0.09039953
2.95057449 -0.80580627 -3.79487179 0.01054403
2.95057449 -0.80580627 -0.1025641 0.02075342
1.72964712 -2.4174188 -4.0 0.0126843
1.72964712 -2.4174188 -0.1025641 0.01502819
3.35755028 2.82032194 0.30769231 0.01796333
3.35755028 2.82032194 4.0 0.01074086
4.78196555 1.61161253 0.51282051 0.01023232
4.78196555 1.61161253 3.17948718 0.01099512
-1.32267132 -3.82757977 0.51282051 0.01180676
-1.32267132 -3.82757977 3.17948718 0.01067512
2.3401108 2.82032194 0.1025641 0.01006
2.3401108 2.82032194 4.0 0.01247434
-3.56103818 4.2304829 -2.76923077 0.01029009
-3.56103818 4.2304829 -0.92307692 0.01007536
1.72964712 -2.21596724 -4.0 0.0131046
1.72964712 -2.21596724 -0.1025641 0.01918385
-1.93313501 4.02903134 -3.17948718 0.01143056
-1.93313501 4.02903134 -0.51282051 0.01010528
-3.56103818 2.82032194 -3.79487179 0.01212217
-3.56103818 2.82032194 -0.30769231 0.0151989
-1.11918343 3.82757977 -2.97435897 0.01067335
-1.11918343 3.82757977 -0.51282051 0.01119714
2.74708659 -4.63338604 -2.35897436 0.01020574
2.74708659 -4.63338604 -1.33333333 0.0104329
-2.95057449 1.2087094 -4.0 0.01170343
-2.95057449 1.2087094 -0.1025641 0.03062058
2.3401108 -1.00725783 -4.0 0.01083097
2.3401108 -1.00725783 -0.1025641 0.06348412
5.18894135 -1.41016097 -2.56410256 0.01031893
5.18894135 -1.41016097 -1.12820513 0.01098246
2.13662291 3.42467664 0.30769231 0.0134319
2.13662291 3.42467664 3.79487179 0.01112111
2.3401108 4.02903134 0.51282051 0.01025241
2.3401108 4.02903134 3.38461538 0.01038161
-3.76452607 1.2087094 -3.79487179 0.01094422
-3.76452607 1.2087094 -0.30769231 0.02297537
3.35755028 -1.61161253 -4.0 0.01217284
3.35755028 -1.61161253 -0.1025641 0.01542941
3.56103818 3.6261282 0.51282051 0.01108576
3.56103818 3.6261282 3.38461538 0.01117724
-4.57847766 -3.82757977 1.53846154 0.01028359
-4.57847766 -3.82757977 2.15384615 0.01010372
4.17150187 2.82032194 0.51282051 0.01379453
4.17150187 2.82032194 3.58974359 0.01077855
-3.56103818 4.02903134 -2.97435897 0.0109124
-3.56103818 4.02903134 -0.71794872 0.01006061
2.3401108 2.21596724 0.1025641 0.02399043
2.3401108 2.21596724 4.0 0.0144845
3.15406239 2.01451567 0.1025641 0.01632441
3.15406239 2.01451567 4.0 0.01339155
-3.35755028 -0.40290313 0.30769231 0.01542189
-3.35755028 -0.40290313 2.97435897 0.01003323
1.93313501 2.4174188 0.1025641 0.01658077
1.93313501 2.4174188 4.0 0.01335951
3.96801397 -2.21596724 -3.79487179 0.0117097
3.96801397 -2.21596724 -0.30769231 0.01556994
-4.57847766 3.6261282 -2.56410256 0.01027924
-4.57847766 3.6261282 -1.12820513 0.01041152
1.93313501 0.80580627 0.1025641 0.03208851
1.93313501 0.80580627 3.79487179 0.01055705
-4.57847766 -3.0217735 0.71794872 0.01116226
-4.57847766 -3.0217735 3.17948718 0.01037034
-2.3401108 3.22322507 -4.0 0.01042215
-2.3401108 3.22322507 -0.30769231 0.01725695
3.56103818 -1.61161253 -4.0 0.0113261
3.56103818 -1.61161253 -0.1025641 0.01130771
-0.91569553 -2.82032194 0.30769231 0.01958937
-0.91569553 -2.82032194 3.58974359 0.01021409
1.52615922 1.61161253 0.1025641 0.02644445
1.52615922 1.61161253 4.0 0.01190231
2.13662291 1.61161253 0.1025641 0.06490288
2.13662291 1.61161253 4.0 0.01394637
-2.95057449 -3.82757977 0.51282051 0.01167533
-2.95057449 -3.82757977 3.38461538 0.01156108
-4.57847766 -0.6043547 0.92307692 0.01080859
-4.57847766 -0.6043547 2.35897436 0.01001119
-2.95057449 2.01451567 -4.0 0.01400496
-2.95057449 2.01451567 -0.1025641 0.02089289
2.95057449 -3.42467664 -3.79487179 0.01077721
2.95057449 -3.42467664 -0.30769231 0.0115638
-2.74708659 -3.42467664 0.30769231 0.01238666
-2.74708659 -3.42467664 3.79487179 0.01110956
-2.3401108 2.61887037 -4.0 0.01333372
-2.3401108 2.61887037 -0.1025641 0.01322262
3.56103818 2.4174188 0.30769231 0.02149726
3.56103818 2.4174188 4.0 0.01122905
-4.37498976 -1.2087094 0.51282051 0.01562392
-4.37498976 -1.2087094 3.38461538 0.01100675
3.56103818 -3.22322507 -3.79487179 0.01012849
3.56103818 -3.22322507 -0.30769231 0.01028806
-0.50871974 -1.8130641 0.30769231 0.01586287
-0.50871974 -1.8130641 2.97435897 0.01114632
2.3401108 -0.80580627 -3.79487179 0.01108032
2.3401108 -0.80580627 -0.1025641 0.03944466
-0.50871974 -0.80580627 0.51282051 0.01436234
-0.50871974 -0.80580627 2.35897436 0.01105369
-5.18894135 -2.61887037 1.12820513 0.01045515
-5.18894135 -2.61887037 2.56410256 0.01025421
0.71220764 2.4174188 0.30769231 0.02040248
0.71220764 2.4174188 3.38461538 0.01080899
-2.3401108 1.00725783 -4.0 0.01083097
-2.3401108 1.00725783 -0.1025641 0.06348412
-2.5435987 4.43193447 -2.76923077 0.01070377
-2.5435987 4.43193447 -0.92307692 0.01057822
4.98545345 1.00725783 0.92307692 0.01003433
4.98545345 1.00725783 2.56410256 0.01000922
-0.30523184 2.61887037 -2.15384615 0.01004677
-0.30523184 2.61887037 -0.51282051 0.01374081
1.72964712 -1.41016097 -4.0 0.01211567
1.72964712 -1.41016097 -0.1025641 0.03999123
-4.98545345 1.00725783 -2.56410256 0.01000922
-4.98545345 1.00725783 -0.92307692 0.01003433
-1.11918343 2.82032194 -3.79487179 0.01012917
-1.11918343 2.82032194 -0.30769231 0.02180411
-0.91569553 -4.02903134 0.92307692 0.01141695
-0.91569553 -4.02903134 2.35897436 0.01031812
-1.93313501 1.8130641 -4.0 0.01390133
-1.93313501 1.8130641 -0.1025641 0.03813733
-0.30523184 1.2087094 -2.15384615 0.01015635
-0.30523184 1.2087094 -0.51282051 0.01156328
0.91569553 -0.20145157 -1.33333333 0.01048967
0.91569553 -0.20145157 -0.92307692 0.01059339
1.52615922 4.02903134 0.71794872 0.01248387
1.52615922 4.02903134 3.17948718 0.01008713
3.35755028 1.8130641 0.1025641 0.01424861
3.35755028 1.8130641 4.0 0.01254226
3.96801397 -0.40290313 -2.35897436 0.01097143
3.96801397 -0.40290313 -0.51282051 0.01101522
-2.95057449 -2.82032194 0.30769231 0.0236552
-2.95057449 -2.82032194 4.0 0.01190217
2.74708659 -2.01451567 -4.0 0.01444126
2.74708659 -2.01451567 -0.1025641 0.02587655
-3.56103818 -1.61161253 0.1025641 0.01130771
-3.56103818 -1.61161253 4.0 0.0113261
-3.35755028 3.82757977 -3.38461538 0.01043226
-3.35755028 3.82757977 -0.51282051 0.01005188
-2.13662291 -4.2304829 0.71794872 0.01084329
-2.13662291 -4.2304829 2.97435897 0.01133691
-3.56103818 0.20145157 -1.74358974 0.01096673
-3.56103818 0.20145157 -0.71794872 0.0115368
-1.72964712 4.2304829 -2.97435897 0.01041917
-1.72964712 4.2304829 -0.71794872 0.01029483
-4.78196555 2.4174188 -3.17948718 0.01088981
-4.78196555 2.4174188 -0.71794872 0.01215584
-4.37498976 3.0217735 -3.38461538 0.01029699
-4.37498976 3.0217735 -0.51282051 0.01003142
-2.5435987 1.00725783 -4.0 0.01082133
-2.5435987 1.00725783 -0.1025641 0.0513688
3.76452607 4.43193447 1.74358974 0.01013144
3.76452607 4.43193447 1.94871795 0.01006563
-3.15406239 1.8130641 -4.0 0.01329912
-3.15406239 1.8130641 -0.1025641 0.01913124
-3.56103818 -0.40290313 0.30769231 0.01192278
-3.56103818 -0.40290313 2.76923077 0.01070229
0.30523184 1.61161253 0.51282051 0.01385043
0.30523184 1.61161253 2.35897436 0.01001019
4.17150187 1.2087094 0.30769231 0.01307675
4.17150187 1.2087094 3.58974359 0.0105973
-1.52615922 -2.21596724 0.1025641 0.01624548
-1.52615922 -2.21596724 4.0 0.01217629
-3.76452607 3.82757977 -3.17948718 0.01030138
-3.76452607 3.82757977 -0.71794872 0.01094355
2.74708659 -3.42467664 -3.79487179 0.01110956
2.74708659 -3.42467664 -0.30769231 0.01238666
-2.95057449 3.42467664 -3.79487179 0.01077721
-2.95057449 3.42467664 -0.30769231 0.0115638
2.13662291 2.61887037 0.1025641 0.01321097
2.13662291 2.61887037 4.0 0.01312959
-0.91569553 -2.4174188 0.30769231 0.02483723
-0.91569553 -2.4174188 3.58974359 0.01149808
0.91569553 -2.21596724 -3.58974359 0.01189047
0.91569553 -2.21596724 -0.30769231 0.02692696
-2.5435987 0.20145157 -2.35897436 0.0109642
-2.5435987 0.20145157 -0.30769231 0.01687346
0.50871974 1.00725783 0.30769231 0.01123149
0.50871974 1.00725783 2.56410256 0.011322
0.71220764 2.21596724 0.30769231 0.02157237
0.71220764 2.21596724 3.38461538 0.0111879
2.95057449 0.6043547 0.1025641 0.0146778
2.95057449 0.6043547 3.38461538 0.01182567
0.91569553 0.6043547 0.30769231 0.01475216
0.91569553 0.6043547 2.76923077 0.01133869
1.32267132 0.40290313 0.30769231 0.01752905
1.32267132 0.40290313 2.76923077 0.01084094
1.72964712 -1.8130641 -4.0 0.01319727
1.72964712 -1.8130641 -0.1025641 0.03039129
-2.13662291 1.61161253 -4.0 0.01394637
-2.13662291 1.61161253 -0.1025641 0.06490288
-4.17150187 -2.61887037 0.51282051 0.01569553
-4.17150187 -2.61887037 3.58974359 0.01151952
-4.17150187 -1.8130641 0.30769231 0.01387498
-4.17150187 -1.8130641 3.79487179 0.0105417
-0.71220764 -3.82757977 0.71794872 0.01115463
-0.71220764 -3.82757977 2.15384615 0.0105158
1.93313501 2.61887037 0.1025641 0.01269672
1.93313501 2.61887037 4.0 0.01270634
-1.72964712 -4.63338604 1.53846154 0.01017107
-1.72964712 -4.63338604 1.94871795 0.01023638
1.72964712 -3.22322507 -3.79487179 0.01143485
1.72964712 -3.22322507 -0.30769231 0.01679466
1.72964712 3.42467664 0.30769231 0.01310449
1.72964712 3.42467664 3.79487179 0.01021994
-2.5435987 -0.6043547 0.1025641 0.0225963
-2.5435987 -0.6043547 3.58974359 0.01040131
-3.56103818 0.40290313 -2.76923077 0.01070229
-3.56103818 0.40290313 -0.30769231 0.01192278
0.91569553 -1.00725783 -3.38461538 0.01062899
0.91569553 -1.00725783 -0.30769231 0.02338512
-0.50871974 3.0217735 -2.56410256 0.01085803
-0.50871974 3.0217735 -0.30769231 0.01130192
1.11918343 2.21596724 0.1025641 0.01135031
1.11918343 2.21596724 3.79487179 0.01177039
0.71220764 2.82032194 0.30769231 0.01672981
0.71220764 2.82032194 3.17948718 0.01114115
-1.72964712 -0.40290313 0.1025641 0.01045297
-1.72964712 -0.40290313 2.97435897 0.01103963
-5.18894135 -1.2087094 1.12820513 0.01012122
-5.18894135 -1.2087094 2.35897436 0.01021381
-3.35755028 2.61887037 -4.0 0.01147779
-3.35755028 2.61887037 -0.30769231 0.02189338
0.71220764 0.6043547 0.30769231 0.01060465
0.71220764 0.6043547 2.56410256 0.01040076
2.13662291 -2.21596724 -4.0 0.01426292
2.13662291 -2.21596724 -0.1025641 0.02373925
-2.13662291 -1.00725783 0.1025641 0.06038787
-2.13662291 -1.00725783 4.0 0.0106656
4.17150187 1.41016097 0.30769231 0.01386616
4.17150187 1.41016097 3.58974359 0.01156067
-1.52615922 3.6261282 -3.38461538 0.01173531
-1.52615922 3.6261282 -0.51282051 0.01567772
-4.57847766 1.61161253 -3.38461538 0.01105323
-4.57847766 1.61161253 -0.51282051 0.01316182
2.74708659 0.80580627 0.1025641 0.02754549
2.74708659 0.80580627 3.79487179 0.01088303
-3.96801397 1.41016097 -3.79487179 0.01081429
-3.96801397 1.41016097 -0.30769231 0.01829317
4.98545345 0.80580627 1.33333333 0.01008159
4.98545345 0.80580627 1.94871795 0.0101272
3.76452607 -2.21596724 -4.0 0.01065162
3.76452607 -2.21596724 -0.30769231 0.01973167
-1.93313501 4.63338604 -2.15384615 0.01043205
-1.93313501 4.63338604 -1.33333333 0.01019221
4.17150187 4.02903134 1.12820513 0.01003066
4.17150187 4.02903134 2.35897436 0.01067809
-0.50871974 2.21596724 -2.97435897 0.01095515
-0.50871974 2.21596724 -0.30769231 0.0159591
1.52615922 -1.8130641 -4.0 0.01226108
1.52615922 -1.8130641 -0.1025641 0.02336898
4.17150187 -3.42467664 -3.17948718 0.01091718
4.17150187 -3.42467664 -0.71794872 0.01181005
1.11918343 -0.6043547 -2.97435897 0.01156226
1.11918343 -0.6043547 -0.30769231 0.02003888
-2.5435987 2.82032194 -4.0 0.01246608
-2.5435987 2.82032194 -0.30769231 0.02798063
1.11918343 1.2087094 0.1025641 0.01309961
1.11918343 1.2087094 3.58974359 0.01201896
-4.17150187 -2.01451567 0.30769231 0.01321395
-4.17150187 -2.01451567 3.79487179 0.01061737
-3.15406239 3.82757977 -3.38461538 0.01105766
-3.15406239 3.82757977 -0.51282051 0.01091536
-0.71220764 1.8130641 -3.38461538 0.01130885
-0.71220764 1.8130641 -0.30769231 0.02234185
-2.74708659 -4.43193447 0.92307692 0.01036652
-2.74708659 -4.43193447 2.76923077 0.01053456
3.56103818 -2.01451567 -4.0 0.01175392
